ply
format ascii 1.0
comment PCL generated
obj_info is_cyberware_data 0
obj_info is_mesh 0
obj_info is_warped 0
obj_info is_interlaced 0
obj_info num_cols 41049
obj_info num_rows 1
obj_info echo_rgb_offset_x 0
obj_info echo_rgb_offset_y 0
obj_info echo_rgb_offset_z 0
obj_info echo_rgb_frontfocus 0.0
obj_info echo_rgb_backfocus 0.0
obj_info echo_rgb_pixelsize 0.0
obj_info echo_rgb_centerpixel 0
obj_info echo_frames 1
obj_info echo_lgincr 0.0
element vertex 1030
property float x
property float y
property float z
property float intensity
property float distance
property float sid
end_header
-0.655093 -0.634495 -1.27485 14.64 1.39816 114.76
-0.644662 -0.634651 -1.27582 15.1579 1.39489 118.842
-0.635171 -0.634838 -1.27566 14 1.39114 122.429
-0.624753 -0.634265 -1.27572 15.0909 1.38695 126.364
-0.615063 -0.634984 -1.27537 14.5385 1.38331 130.077
-0.604338 -0.635102 -1.27554 16 1.37952 134.24
-0.59531 -0.636072 -1.2741 14.4348 1.37543 137.609
-0.584942 -0.635309 -1.27483 14.5517 1.372 141.69
-0.575505 -0.634445 -1.27534 15.5652 1.36874 145.391
-0.564887 -0.635437 -1.2755 15.5652 1.36561 149.652
-0.554942 -0.635428 -1.27538 15.6 1.36213 153.567
-0.545215 -0.635921 -1.27525 16.7407 1.359 157.444
-0.535506 -0.635423 -1.27504 15.913 1.35543 161.261
-0.524926 -0.636431 -1.27429 17.0526 1.35184 165.474
-0.514714 -0.635606 -1.27446 15.92 1.34844 169.56
-0.505217 -0.634717 -1.27525 14.963 1.34581 173.444
-0.494674 -0.635465 -1.27408 15.6 1.34196 177.64
-0.485307 -0.635533 -1.27575 16.6286 1.34069 181.657
-0.475478 -0.635805 -1.27493 14.7778 1.33728 185.611
-0.465163 -0.635758 -1.27529 15.6552 1.33469 189.897
-0.454861 -0.636163 -1.27421 16.2581 1.33113 194.065
-0.444706 -0.636396 -1.27554 15 1.32968 198.429
-0.434797 -0.636211 -1.27548 14.9091 1.327 202.545
-0.425475 -0.636403 -1.27513 16.75 1.32442 206.417
-0.415366 -0.63558 -1.27582 16.069 1.32221 210.69
-0.405284 -0.636935 -1.27495 15.2 1.31964 214.92
-0.395197 -0.6372 -1.27533 16.3846 1.31777 219.231
-0.385378 -0.636953 -1.27666 16.7273 1.31664 223.5
-0.375478 -0.636707 -1.27338 14.8571 1.31152 227.429
-0.365175 -0.636836 -1.27436 15.5833 1.31029 231.917
-0.355577 -0.636888 -1.27501 16.5 1.30896 236.083
-0.344916 -0.636595 -1.27683 17.5833 1.30838 240.792
-0.335188 -0.637296 -1.27567 16.24 1.30584 244.92
-0.325197 -0.637416 -1.27494 15.8095 1.30348 249.19
-0.31475 -0.636557 -1.27586 16 1.30211 253.75
-0.305303 -0.637872 -1.27602 15.7143 1.30129 257.905
-0.294733 -0.637611 -1.27511 15.6667 1.29872 262.444
-0.285418 -0.637837 -1.27535 18.1176 1.29765 266.529
-0.275468 -0.637748 -1.2754 18.24 1.29624 270.88
-0.265022 -0.637786 -1.27675 17.2941 1.29606 275.529
-0.254577 -0.637715 -1.27629 16.2727 1.29432 280.091
-0.244389 -0.637913 -1.27467 17 1.29175 284.5
-0.235749 -0.637745 -1.27527 17.0667 1.29127 288.333
-0.224817 -0.637829 -1.27582 17.8182 1.29064 293.182
-0.214627 -0.63706 -1.27563 17.3333 1.28917 297.667
-0.204417 -0.637404 -1.27603 18.75 1.28879 302.208
-0.194635 -0.637447 -1.27605 18.5455 1.28805 306.545
-0.183605 -0.638128 -1.27645 18.1538 1.28792 311.462
-0.175439 -0.638174 -1.2751 17.7895 1.28621 315.053
-0.165893 -0.638341 -1.27657 18.4444 1.28706 319.333
-0.155179 -0.637975 -1.27653 18.1905 1.28633 324.095
-0.145622 -0.637832 -1.27556 18 1.285 328.333
-0.135081 -0.637475 -1.27721 20 1.28595 333.048
-0.125103 -0.637338 -1.2781 18.1429 1.28643 337.5
-0.115141 -0.638149 -1.27629 17.4286 1.285 341.929
-0.104388 -0.638242 -1.27809 16.5455 1.28655 346.727
-0.0947939 -0.638308 -1.27769 18.2667 1.2862 351
-0.0843875 -0.637492 -1.27801 20 1.28618 355.636
-0.0748415 -0.637974 -1.2776 20.5556 1.28617 359.889
-0.066377 -0.638293 -1.27653 22 1.2855 363.667
-0.0545721 -0.638919 -1.27656 19.5385 1.28615 368.923
-0.0471083 -0.638927 -1.27794 19.1111 1.28767 372.222
-0.0344691 -0.638317 -1.27647 19.75 1.28663 377.875
-0.0252848 -0.638486 -1.27662 19.2381 1.28733 381.952
-0.0150368 -0.638773 -1.27666 18.1667 1.28808 386.5
-0.00497264 -0.638358 -1.27802 18.4 1.2898 390.933
0.00624704 -0.639093 -1.27453 18 1.28786 396
0.0144261 -0.638698 -1.27741 19.6 1.29093 399.533
0.0239651 -0.638664 -1.27736 21.5 1.29175 403.75
0.0349632 -0.638288 -1.27675 16.5455 1.29209 408.636
0.0458129 -0.638286 -1.27814 19 1.2945 413.357
0.0548314 -0.638291 -1.27678 18.1538 1.29431 417.385
0.063835 -0.637923 -1.27707 19.6667 1.2955 421.333
0.0719342 -0.639154 -1.27812 19.6 1.298 424.8
0.086062 -0.639347 -1.27755 20 1.2995 431
0.0934849 -0.638629 -1.27769 18.75 1.30037 434.25
0.107116 -0.639022 -1.27724 23.2 1.3022 440.2
0.113624 -0.638483 -1.27787 21.1429 1.30357 443
0.12538 -0.638913 -1.27905 23 1.30675 448
0.135787 -0.639275 -1.27633 20.6667 1.30633 452.667
0.143968 -0.639378 -1.27724 19.5 1.30862 456.125
0.1533 -0.638995 -1.27925 22 1.312 460
0.164725 -0.638748 -1.27955 21 1.31437 464.875
0.17208 -0.638815 -1.2797 23 1.316 468
0.18609 -0.63893 -1.27912 21 1.3185 474
0.19232 -0.63906 -1.2778 21 1.31875 476.75
0.215099 -0.638923 -1.27876 19.4286 1.32471 486.286
0.22126 -0.638997 -1.2774 21.3333 1.325 489
0.23297 -0.63945 -1.2761 20 1.327 494
0.25073 -0.63976 -1.28 18 1.335 501
0.26278 -0.63968 -1.2798 22 1.338 506
0.27176 -0.63983 -1.2769 20 1.338 510
0.287023 -0.639493 -1.27947 21.3333 1.34433 516
0.30891 -0.63914 -1.2788 20 1.35 525
0.3557 -0.63959 -1.2764 22 1.363 544
0.367085 -0.639413 -1.27847 20 1.3685 548.25
0.394427 -0.639787 -1.2779 20 1.37767 559
0.424785 -0.63951 -1.2795 22 1.39 570.5
0.506637 -0.63967 -1.2777 18.6667 1.42133 601.333
0.518425 -0.639115 -1.2787 19 1.427 605.5
0.57388 -0.63973 -1.2799 18 1.453 625
-0.98288 -0.6298 -1.2795 12 1.56 4
-0.97387 -0.62954 -1.2757 12 1.552 6
-0.96533 -0.62909 -1.2781 13 1.54875 9
-0.957223 -0.628265 -1.27717 11 1.54325 11.25
-0.943425 -0.626898 -1.27636 5 1.5345 15.25
-0.93874 -0.6206 -1.2702 4 1.525 15
-0.912327 -0.626777 -1.27437 3.33333 1.516 24.6667
-0.906532 -0.627423 -1.27609 7.77778 1.51444 26.8889
-0.893003 -0.627373 -1.27667 14.6667 1.50767 31.3333
-0.88498 -0.625943 -1.2759 10.6667 1.50233 33.6667
-0.878658 -0.629248 -1.27582 12.8 1.5002 36
-0.86392 -0.62972 -1.27935 13 1.4955 41.5
-0.842655 -0.629615 -1.27915 13 1.4845 48.5
-0.832803 -0.625283 -1.27667 10 1.476 51
-0.826755 -0.626594 -1.27654 13.25 1.47337 53.125
-0.81161 -0.62791 -1.27725 13.5 1.467 58.5
-0.79274 -0.62987 -1.2764 12 1.458 65
-0.78454 -0.62906 -1.27475 13 1.4525 67.5
-0.77097 -0.6298 -1.273 12 1.445 72
-0.76565 -0.62994 -1.2798 14 1.448 75
-0.662 -0.62971 -1.2761 14 1.4 112
-0.94428 -0.61444 -1.2771 14 1.531 14
-0.93983 -0.61827 -1.2786 6 1.531 16
-0.91004 -0.61785 -1.2711 12 1.509 24
-0.90702 -0.61858 -1.2709 0 1.5075 25
-0.90366 -0.60888 -1.27337 4.66667 1.504 25.6667
-0.83104 -0.60887 -1.2755 12 1.468 50
-0.81511 -0.60245 -1.2733 14 1.456 54.5
-0.80785 -0.608465 -1.2763 23 1.457 58
-0.89864 -0.59908 -1.2711 0 1.496 26
-0.81278 -0.59696 -1.2799 14 1.458 56
-0.80481 -0.59814 -1.2723 20 1.4485 57.5
-0.7971 -0.59002 -1.2751 10 1.444 60
-0.90635 -0.58322 -1.2704 2 1.494 22
-0.82284 -0.58843 -1.275 24 1.456 51
-0.8053 -0.58381 -1.27417 17 1.445 56.5
-0.797513 -0.587057 -1.2754 20.6667 1.44333 59.6667
-0.90142 -0.57893 -1.2745 4 1.493 24
-0.81835 -0.57882 -1.2708 12 1.447 51
-0.794858 -0.575657 -1.2758 18.5 1.43825 59.75
-0.80832 -0.56004 -1.2767 8 1.44 54
-0.89063 -0.55876 -1.2703 2 1.477 25
-0.81337 -0.55378 -1.2725 10 1.437 51
-0.799055 -0.55263 -1.27875 28 1.4345 57
-0.81087 -0.54814 -1.2702 10 1.432 51
-0.79294 -0.54126 -1.2717 12 1.422 57
-0.88417 -0.53501 -1.2746 16 1.469 26
-0.87014 -0.52814 -1.2794 8 1.463 31
-0.86754 -0.52603 -1.2705 2 1.454 30
-0.86112 -0.51289 -1.2751 34 1.45 32
-0.85414 -0.51028 -1.2795 2 1.449 35
-0.7897 -0.51052 -1.2728 12 1.411 56
-0.85629 -0.50979 -1.2783 28 1.449 34
-0.85582 -0.4963 -1.2776 14 1.444 33
-0.79037 -0.48355 -1.2792 28 1.408 55
-0.82736 -0.47511 -1.2717 0 1.418 40
-0.83367 -0.46768 -1.2753 12 1.422 38
-0.82845 -0.4573 -1.275 0 1.416 39
-0.78733 -0.44487 -1.2718 26 1.389 52
-0.79304 -0.43283 -1.27615 9 1.392 50
-0.78844 -0.43118 -1.2734 0 1.387 51
-0.79304 -0.4221 -1.2797 2 1.392 50
-0.69883 -0.41045 -1.2796 32 1.344 84
-0.712838 -0.403952 -1.27697 26.9091 1.34636 77.8182
-0.704375 -0.403623 -1.27716 30.8182 1.34259 81.0455
-0.695328 -0.404764 -1.27809 31.1579 1.33963 84.7368
-0.685971 -0.403374 -1.27808 32.2 1.3351 88.25
-0.678857 -0.401923 -1.27857 34 1.332 91
-0.77067 -0.39193 -1.2738 8 1.368 55
-0.76638 -0.39662 -1.2796 4 1.372 58
-0.72249 -0.39491 -1.2788 12 1.35 74
-0.713746 -0.395 -1.27354 25.125 1.3415 76.3125
-0.704744 -0.394837 -1.27262 31 1.33656 79.5556
-0.69501 -0.395587 -1.27401 31 1.33354 83.5833
-0.684339 -0.395385 -1.27528 24.6667 1.32983 87.9167
-0.678686 -0.392816 -1.27662 20.8 1.3278 90.2
-0.78454 -0.384925 -1.27605 10 1.375 50
-0.721233 -0.38203 -1.27323 13.3333 1.34133 72.6667
-0.71739 -0.386275 -1.2713 17 1.339 74
-0.7083 -0.38952 -1.27055 30 1.335 77.5
-0.693145 -0.389162 -1.27165 32 1.329 83.5
-0.684492 -0.387396 -1.27085 18 1.324 86.6
-0.678102 -0.385421 -1.27466 19.0667 1.32393 89.6667
-0.78129 -0.379545 -1.2718 4 1.3685 50
-0.68115 -0.3769 -1.2746 14 1.323 88
-0.678009 -0.375258 -1.2752 14.3333 1.32175 89.25
-0.755333 -0.363467 -1.2756 12.6667 1.355 59.3333
-0.68012 -0.36346 -1.2709 16 1.316 87
-0.678201 -0.364611 -1.27529 14.25 1.31925 88.625
-0.77136 -0.35513 -1.2758 28 1.361 53
-0.75505 -0.35513 -1.2758 18 1.353 59
-0.680367 -0.355107 -1.27737 20 1.31967 87.6667
-0.678682 -0.354891 -1.2743 18 1.31625 87.75
-0.75213 -0.34544 -1.273 29 1.347 59
-0.74136 -0.34862 -1.2771 2 1.346 64
-0.73872 -0.34168 -1.27395 10 1.3405 64
-0.68056 -0.34262 -1.27755 20 1.317 87
-0.677859 -0.345093 -1.27617 21 1.31517 87.9167
-0.66643 -0.34898 -1.2784 20 1.313 93
-0.77199 -0.3364 -1.2721 28 1.354 51
-0.75262 -0.3324 -1.2774 22 1.348 59
-0.746487 -0.332897 -1.2725 8 1.341 60.3333
-0.680807 -0.336831 -1.27495 22 1.3135 86.125
-0.675072 -0.33432 -1.27666 25.2174 1.31187 88.5652
-0.752425 -0.32398 -1.27665 8 1.3455 58.5
-0.68111 -0.32689 -1.2722 22 1.309 85
-0.674113 -0.32464 -1.27412 27.7333 1.30707 88
-0.669473 -0.327473 -1.27698 19 1.30817 90.5
-0.75174 -0.31803 -1.2744 22 1.342 58
-0.7497 -0.31831 -1.2755 22 1.342 59
-0.67471 -0.318222 -1.27345 25.6667 1.30533 87.3333
-0.76033 -0.30545 -1.2784 0 1.347 55
-0.682487 -0.302633 -1.27403 16.6667 1.306 83.6667
-0.67932 -0.30065 -1.275 12 1.305 85
-0.679345 -0.29823 -1.27035 23 1.3005 84
-0.69018 -0.28814 -1.2791 22 1.311 81
-0.68813 -0.28107 -1.2714 26 1.302 80
0.406359 -0.274334 -1.27825 29.5714 1.26936 583.643
0.414857 -0.274069 -1.27771 30.2222 1.27222 587.259
0.425013 -0.273041 -1.27754 28.8889 1.276 591.5
0.433958 -0.272153 -1.27774 26.6154 1.27969 595.154
0.44196 -0.2722 -1.28 34 1.285 598
0.406152 -0.264959 -1.27515 27.6552 1.26472 584.448
0.415557 -0.264705 -1.27349 30.7826 1.26696 588.652
0.425611 -0.26488 -1.2736 30.5385 1.27119 592.769
0.434764 -0.26467 -1.27387 29.3043 1.27517 596.478
0.441453 -0.262062 -1.27415 30 1.27775 599.25
-0.69806 -0.25943 -1.2754 2 1.306 76
0.40451 -0.255958 -1.27465 25.8182 1.26195 584.182
0.414774 -0.257843 -1.27036 31.4286 1.26257 589.143
0.425498 -0.257797 -1.27082 32.3333 1.26733 593.5
0.43487 -0.25708 -1.2701 33 1.2705 597.5
0.443447 -0.255377 -1.27317 30 1.2765 600.5
0.403303 -0.246073 -1.27477 22.6667 1.25983 584
0.40315 -0.235611 -1.27534 21 1.2585 584.188
-0.78218 -0.22511 -1.2763 32 1.342 43
0.402751 -0.224864 -1.27441 19.8824 1.25576 584.529
0.45344 -0.22098 -1.27195 25 1.274 606
-0.78138 -0.21711 -1.27165 18 1.3365 42
0.402673 -0.214573 -1.27578 20.8571 1.25536 584.571
0.402761 -0.205633 -1.27409 21.8824 1.25253 585.176
0.403199 -0.195825 -1.27485 21.25 1.252 585.5
0.403295 -0.18673 -1.27093 23 1.24725 586.5
0.4074 -0.174963 -1.27563 14.6667 1.25167 587.667
0.47744 -0.16145 -1.2791 10 1.283 616
-0.8119 -0.15343 -1.2769 0 1.349 30
0.4752 -0.15587 -1.2753 14 1.278 616
-0.81802 -0.13572 -1.2798 28 1.353 28
0.418595 -0.134805 -1.27695 12 1.253 593
0.42009 -0.11558 -1.2716 6 1.247 595
0.42332 -0.10813 -1.2741 6 1.25 596
0.49018 -0.10012 -1.271 26 1.276 624
0.42363 -0.096336 -1.2704 8 1.246 597
-0.8459 -0.075196 -1.2799 6 1.364 17
0.507643 -0.0524913 -1.27827 20.6667 1.288 630
0.44412 -0.037854 -1.2761 24 1.257 605
-0.16254 -0.020201 -1.278 0 1.138 317
0.51659 -0.0086047 -1.2722 28 1.286 635
0.52732 0.014432 -1.2777 28 1.296 638
0.56393 0.052593 -1.2767 32 1.314 652
-0.78764 0.14019 -1.2792 0 1.337 39
-0.75903 0.15916 -1.2741 2 1.32 49
-0.754146 0.165616 -1.2759 7.6 1.3198 51.4
-0.745425 0.167856 -1.27426 12.4 1.3143 54.4
-0.735189 0.167912 -1.27322 14.9231 1.30838 58.0769
-0.72555 0.168239 -1.27425 15.2727 1.30464 62
-0.716595 0.168002 -1.27467 16.3077 1.30069 65.5385
-0.704925 0.168295 -1.27381 16.1818 1.29445 69.9091
-0.694097 0.167863 -1.2731 16.7273 1.28873 74
-0.685445 0.167637 -1.27333 17.5385 1.28492 77.4615
-0.67499 0.168418 -1.27464 15.4 1.2814 81.9
-0.664723 0.168397 -1.27542 15.6667 1.2775 86.1667
-0.653633 0.168225 -1.27495 16 1.27218 90.5455
-0.643296 0.167393 -1.27336 19.5 1.26617 94.4167
-0.635182 0.167467 -1.27315 21 1.2625 97.7
-0.625439 0.168133 -1.27416 19.6923 1.25938 101.923
-0.615058 0.167999 -1.27493 19.8182 1.25573 106.364
-0.604846 0.168149 -1.27456 19.7778 1.25122 110.556
-0.595995 0.167949 -1.27352 20.4615 1.24669 114.077
-0.585469 0.168299 -1.27363 20.4444 1.24267 118.556
-0.574769 0.168072 -1.27439 20.9231 1.23915 123.231
-0.565008 0.167024 -1.27306 20.4615 1.23408 127.154
-0.554263 0.168481 -1.27484 19 1.23187 132.125
-0.54531 0.167386 -1.27361 21.2308 1.22731 135.769
-0.534702 0.167622 -1.27398 20.7692 1.22385 140.462
-0.523905 0.167017 -1.27241 21.4286 1.2185 144.929
-0.514767 0.167161 -1.27378 21.375 1.21662 149.188
-0.505188 0.168258 -1.27513 21.6667 1.21475 153.667
-0.494711 0.166809 -1.27365 22 1.20969 158.077
-0.484681 0.166948 -1.27409 21.5294 1.20688 162.647
-0.475622 0.167942 -1.27502 22.6667 1.205 166.889
-0.465536 0.167636 -1.27358 21.4118 1.20047 171.235
-0.454572 0.167104 -1.27329 23.0909 1.19682 176.182
-0.445897 0.167752 -1.27489 23.5385 1.19585 180.385
-0.434857 0.168018 -1.27545 24.3077 1.19323 185.538
-0.42505 0.167507 -1.27422 24.6316 1.18926 189.895
-0.414688 0.167442 -1.27473 24.7692 1.18692 194.769
-0.40467 0.167566 -1.27491 24.9231 1.18446 199.462
-0.395247 0.167044 -1.27467 25.1667 1.18175 203.833
-0.384719 0.166772 -1.27473 25.5714 1.17914 208.786
-0.374641 0.166901 -1.27431 25.8571 1.17636 213.5
-0.365413 0.167362 -1.27386 27 1.17383 217.833
-0.354316 0.166796 -1.2735 25.8571 1.17093 223.071
-0.344511 0.166746 -1.27411 26 1.16941 227.824
-0.334904 0.167151 -1.27549 26.2857 1.16879 232.571
-0.324871 0.167278 -1.27444 26.6 1.1658 237.3
-0.315711 0.166619 -1.27436 26.4706 1.16388 241.706
-0.304338 0.166475 -1.27327 26.1176 1.16071 247.118
-0.295079 0.167311 -1.27599 26.8571 1.16186 251.857
-0.284957 0.166871 -1.27509 27.0588 1.15924 256.706
-0.274511 0.166355 -1.27437 25.75 1.15681 261.75
-0.264705 0.165884 -1.27407 24.1176 1.155 266.529
-0.255817 0.166829 -1.27442 25.7143 1.15421 270.929
-0.245374 0.16662 -1.27495 23.3 1.1533 276.1
-0.235217 0.166353 -1.27534 23.8667 1.1524 281.133
-0.224912 0.167038 -1.27535 27.3846 1.15131 286.231
-0.214695 0.166771 -1.27554 26.2353 1.15035 291.294
-0.206228 0.166658 -1.27572 28 1.1497 295.5
-0.195091 0.166683 -1.27497 26.7 1.14795 301
-0.185015 0.167036 -1.27459 26.8 1.1468 306
-0.175309 0.166586 -1.27449 27.5556 1.14594 310.833
-0.164966 0.16639 -1.2747 28.3 1.14545 316
-0.154394 0.166189 -1.27521 27.5294 1.14535 321.294
-0.144798 0.16609 -1.27516 27.2727 1.14486 326.091
-0.135316 0.166669 -1.27513 27 1.14456 330.833
-0.124976 0.165795 -1.27449 25 1.1435 336
-0.114558 0.166018 -1.27522 24.4444 1.14406 341.222
-0.105185 0.165813 -1.27455 24.25 1.14325 345.917
-0.0949498 0.165805 -1.27436 23.0909 1.14305 351.045
-0.0849343 0.166028 -1.27579 20.6667 1.14456 356.056
-0.0747671 0.165663 -1.27569 20.9 1.14455 361.15
-0.0652805 0.165171 -1.27426 24.4167 1.14329 365.917
-0.0549869 0.165878 -1.2744 27.7333 1.14387 371.067
-0.0444822 0.166532 -1.27632 27.8889 1.14628 376.278
-0.035209 0.165929 -1.27451 28 1.14487 380.957
-0.0243788 0.166131 -1.27553 27.5556 1.14656 386.333
-0.0150596 0.166077 -1.2749 26.8235 1.14653 391
-0.00505777 0.166353 -1.27562 25.9048 1.14805 395.952
0.00498499 0.16531 -1.27448 25.6 1.14765 401
0.0149405 0.165565 -1.27464 26.125 1.14875 405.938
0.0253806 0.166521 -1.27566 26.3333 1.15094 411.056
0.0354712 0.165558 -1.27453 26.9412 1.15082 416.118
0.0450314 0.165358 -1.27484 28.4706 1.15224 420.824
0.0548661 0.165605 -1.27468 27 1.15336 425.682
0.0653236 0.165479 -1.27394 23.25 1.15406 430.875
0.0756612 0.165209 -1.27429 23.7143 1.15586 435.929
0.0851294 0.166237 -1.27613 23.5294 1.15924 440.412
0.0946743 0.166608 -1.27555 24.1053 1.16026 445.105
0.104964 0.165616 -1.27438 23.1111 1.16072 450.222
0.114653 0.164891 -1.27434 23.3333 1.16233 454.933
0.125181 0.166462 -1.27646 23.375 1.16656 459.812
0.134217 0.165533 -1.27541 22.8889 1.16717 464.278
0.144967 0.165486 -1.27511 23.0588 1.16906 469.471
0.154768 0.165456 -1.27555 23.0588 1.17153 474.118
0.165234 0.165359 -1.27507 24 1.17337 479.158
0.175649 0.16526 -1.27521 24.4545 1.17586 484.091
0.184275 0.165763 -1.27493 23.8667 1.17767 488.2
0.195432 0.165886 -1.27529 24 1.18076 493.412
0.20513 0.165588 -1.27462 24.2 1.1825 498.05
0.215023 0.165228 -1.27458 24.5263 1.185 502.684
0.225532 0.165363 -1.2747 25.4444 1.18794 507.556
0.235392 0.165595 -1.27559 27.3333 1.19153 512
0.244933 0.165082 -1.27514 28.6667 1.19373 516.467
0.254913 0.165341 -1.27544 25.4737 1.19695 521
0.264316 0.165428 -1.27484 25.125 1.19919 525.375
0.275879 0.165551 -1.27494 24.7778 1.20283 530.611
0.284223 0.165037 -1.27489 27.2 1.20533 534.4
0.295076 0.165622 -1.27554 25.7778 1.2095 539.167
0.304769 0.166217 -1.27588 25.375 1.21306 543.438
0.315419 0.165016 -1.27575 27.2857 1.21636 548.214
0.325158 0.164971 -1.27471 27.6842 1.21874 552.684
0.335409 0.165256 -1.2754 28.2857 1.223 557.071
0.344422 0.165199 -1.27437 27.875 1.22525 561.188
0.354261 0.164669 -1.27372 26.3529 1.22818 565.588
0.365341 0.16517 -1.2751 23.4667 1.2336 570.133
0.375884 0.164514 -1.27485 24.5714 1.23729 574.714
0.385367 0.165406 -1.27391 25.2727 1.24018 578.909
0.394799 0.165205 -1.27379 26.375 1.24375 582.938
0.406111 0.164551 -1.27446 22.6667 1.2488 587.6
0.414366 0.163701 -1.27271 21.0667 1.25047 591.4
0.425551 0.164311 -1.27462 20.75 1.25687 595.688
0.435604 0.163847 -1.27384 18.5333 1.26033 600
0.445282 0.165164 -1.2759 11.4545 1.26645 603.545
-0.735577 0.171823 -1.27937 14 1.31433 59.3333
-0.724165 0.171257 -1.2785 15 1.308 63.5
-0.71572 0.17141 -1.2796 16 1.305 67
-0.695973 0.17187 -1.27947 14.6667 1.29567 74.6667
-0.676197 0.170483 -1.27897 14 1.286 82.3333
-0.656983 0.17088 -1.27877 14.6667 1.27733 90
-0.644255 0.171067 -1.2792 19.5 1.27225 95.25
-0.633848 0.170947 -1.27927 21 1.26783 99.5
-0.62252 0.171247 -1.2784 19.3333 1.26233 104
-0.615545 0.1701 -1.2792 18 1.26 107
-0.6083 0.1701 -1.2791 16 1.257 110
-0.595367 0.17139 -1.27945 18.5 1.25225 115.5
-0.5832 0.171853 -1.2796 20 1.24767 120.667
-0.5751 0.170115 -1.27925 20 1.244 124
-0.56437 0.170055 -1.27885 20 1.2395 128.5
-0.55204 0.17144 -1.2798 16 1.236 134
-0.544745 0.17009 -1.2791 18 1.2325 137
-0.537005 0.170205 -1.27995 20 1.2305 140.5
-0.52438 0.1702 -1.2799 20 1.226 146
-0.51733 0.17073 -1.2792 20 1.223 149
-0.50495 0.17076 -1.27943 20 1.219 154.5
-0.49477 0.170125 -1.27935 20 1.2155 159
-0.48562 0.170055 -1.27885 22 1.212 163
-0.47697 0.17016 -1.2796 20 1.21 167
-0.46139 0.17013 -1.2794 22 1.205 174
-0.45413 0.170085 -1.27905 22 1.2025 177.25
-0.443777 0.170523 -1.2792 20 1.19967 182
-0.438623 0.170907 -1.27893 22.6667 1.198 184.333
-0.41474 0.170077 -1.27897 22.6667 1.19133 195.333
-0.404775 0.170117 -1.2793 23.5 1.189 200
-0.396243 0.17014 -1.27947 25.3333 1.187 204
-0.38998 0.17145 -1.2799 26 1.186 207
-0.37073 0.17016 -1.2796 26 1.181 216
-0.363758 0.170418 -1.2792 28 1.179 219.25
-0.3578 0.17002 -1.2786 28 1.177 222
-0.346398 0.170117 -1.2793 26.5 1.17525 227.5
-0.321285 0.170095 -1.2791 29 1.17 239.5
-0.31289 0.170035 -1.2787 28 1.168 243.5
-0.30588 0.17021 -1.28 28 1.168 247
-0.29115 0.17001 -1.2785 28 1.164 254
-0.287147 0.170103 -1.27917 28.6667 1.164 256
-0.264705 0.170845 -1.28 29 1.1615 267
-0.25848 0.17015 -1.2795 28 1.16 270
-0.195983 0.170392 -1.27903 29 1.1525 300.75
-0.18141 0.17017 -1.2797 26 1.152 308
-0.17736 0.170145 -1.2795 30 1.1515 310
-0.1673 0.17017 -1.2797 30 1.151 315
-0.13918 0.17022 -1.28 32 1.15 329
0.3301 0.26665 -1.2754 0 1.237 552
-0.192606 0.357796 -1.27919 44.125 1.19006 303.938
-0.184801 0.357576 -1.27906 45.2 1.18928 307.68
-0.175393 0.358385 -1.27843 45.619 1.18824 312.19
-0.166372 0.358121 -1.27828 46.8421 1.18747 316.526
-0.154851 0.358038 -1.27884 46.7273 1.18736 322.091
-0.145986 0.358553 -1.27926 23.5 1.1875 326.375
-0.201035 0.366818 -1.2792 26.5 1.19325 300
-0.194165 0.364987 -1.27662 28.6707 1.18968 303.171
-0.184824 0.364443 -1.27617 14.1647 1.18837 307.635
-0.175616 0.364673 -1.27632 14.6024 1.18793 312.072
-0.165281 0.364833 -1.27683 22.328 1.18783 317.064
-0.155199 0.364922 -1.27772 48.246 1.18818 321.941
-0.144817 0.365122 -1.27762 46.6743 1.18767 326.943
-0.135494 0.365492 -1.27842 45.7885 1.18819 331.452
-0.12813 0.36248 -1.2793 32 1.188 335
-0.28786 -0.6505 -1.261 18 1.291 265
-0.27866 -0.65019 -1.2604 18 1.289 269
-0.21091 -0.6501 -1.2602 16 1.281 299
-0.11486 -0.65007 -1.2601 16 1.276 342
-0.085878 -0.65025 -1.2635 19 1.279 355
-0.061383 -0.65036 -1.2607 20 1.277 366
-0.056897 -0.65076 -1.26147 18 1.278 368
-0.0127832 -0.652125 -1.26032 18.5 1.27975 387.75
0.01238 -0.65028 -1.2605 20 1.281 399
0.0453074 -0.650902 -1.26108 18.4 1.285 413.6
0.066493 -0.65039 -1.2608 20 1.287 423
0.0741823 -0.651303 -1.26143 18 1.289 426.333
0.086809 -0.65005 -1.2601 18 1.289 432
0.0959575 -0.650761 -1.26221 19.75 1.2925 435.875
0.102898 -0.651115 -1.26062 19 1.29233 439
0.11893 -0.65053 -1.261 20 1.295 446
0.124132 -0.650714 -1.262 21.2 1.2968 448.2
0.135135 -0.65274 -1.26065 22 1.2985 453
0.146153 -0.650985 -1.2608 21 1.29983 457.833
0.155219 -0.651322 -1.26218 17.2727 1.30291 461.636
0.163447 -0.65114 -1.2614 18 1.30375 465.25
0.172193 -0.650867 -1.2617 16 1.30567 469
0.187175 -0.650475 -1.26095 19 1.308 475.5
0.193726 -0.651466 -1.26154 18.8 1.3104 478.2
0.204765 -0.651065 -1.262 21.75 1.31312 482.875
0.214327 -0.650717 -1.2614 18.6667 1.31467 487
0.225106 -0.650774 -1.26271 19.4286 1.31843 491.429
0.231538 -0.650813 -1.2615 20 1.319 494.25
0.244308 -0.651218 -1.26237 21.3333 1.32317 499.5
0.254773 -0.651755 -1.26329 20.5 1.32692 503.75
0.267007 -0.651722 -1.26168 19.3333 1.32883 509
0.274773 -0.651521 -1.26287 20.2 1.3319 512.1
0.286288 -0.651172 -1.26327 20.3636 1.33536 516.818
0.294215 -0.651128 -1.26284 20.25 1.33725 520.125
0.304228 -0.651387 -1.26197 19.8 1.3396 524.3
0.313527 -0.651545 -1.26344 20.5455 1.34373 527.909
0.323716 -0.652408 -1.26159 19.4 1.3457 532.2
0.33547 -0.650903 -1.26325 21.6667 1.35017 536.833
0.345244 -0.651628 -1.2625 18.4 1.353 540.8
0.354754 -0.651499 -1.26335 19.4 1.3568 544.5
0.365326 -0.651849 -1.26255 20.8889 1.35983 548.778
0.374758 -0.65205 -1.26454 19.2941 1.36482 552.235
0.383964 -0.651445 -1.26315 20 1.36662 556.077
0.396368 -0.651978 -1.2635 19.8462 1.37154 560.846
0.404577 -0.65139 -1.26208 20 1.37309 564.273
0.415594 -0.652043 -1.26342 20.9231 1.37854 568.308
0.424661 -0.652019 -1.26319 19 1.38172 571.833
0.435369 -0.651047 -1.26392 17.6 1.386 575.9
0.445156 -0.651241 -1.2639 19.8462 1.38985 579.615
0.455118 -0.652558 -1.26241 19.3333 1.39311 583.5
0.464525 -0.651425 -1.26382 18 1.39754 586.923
0.474967 -0.651327 -1.26348 16.2222 1.40144 590.889
0.485276 -0.651792 -1.26363 19.3333 1.406 594.667
0.495551 -0.651204 -1.26262 19.3333 1.40922 598.667
0.505345 -0.651707 -1.2633 17.75 1.41413 602.125
0.513517 -0.651053 -1.26374 19.4 1.4177 605.1
0.527274 -0.652317 -1.26187 20.8571 1.42271 610.286
0.535273 -0.652594 -1.26356 19.1765 1.42771 612.882
0.544176 -0.652387 -1.2624 20.7778 1.43067 616.278
0.55529 -0.652088 -1.26182 19.0909 1.43509 620.364
0.565215 -0.651628 -1.26369 18.3077 1.44092 623.615
0.574519 -0.652035 -1.26238 17 1.44436 627.071
0.584862 -0.652934 -1.26285 15.2308 1.44992 630.538
0.595164 -0.652401 -1.26346 16.25 1.45506 634.062
0.604794 -0.652711 -1.26263 16 1.45914 637.5
0.615223 -0.651868 -1.26352 15.0909 1.46455 641
0.624577 -0.65141 -1.26339 16.5 1.46883 644.25
0.635516 -0.651763 -1.26488 14.6667 1.47553 647.667
0.645296 -0.652358 -1.2643 14.6 1.4802 651
0.654335 -0.651665 -1.26214 16.5455 1.48282 654.455
0.664768 -0.652026 -1.26399 15.5 1.48969 657.562
0.674462 -0.6519 -1.26457 14.8889 1.49506 660.667
0.68395 -0.652051 -1.26461 14.875 1.50006 663.75
0.695083 -0.652599 -1.26376 16.1333 1.50547 667.467
0.70484 -0.652483 -1.26353 14.8 1.5104 670.667
0.713917 -0.652906 -1.26406 13.625 1.51581 673.438
0.724877 -0.652994 -1.26436 13.6364 1.52195 676.864
0.735659 -0.652936 -1.26448 12.875 1.52788 680.25
0.744548 -0.653132 -1.26457 14.3529 1.53288 683
0.755153 -0.652646 -1.26617 13.8889 1.53972 686.056
0.765019 -0.653004 -1.26442 12.3333 1.54406 689.389
0.774702 -0.652901 -1.26295 13 1.54836 692.643
0.784843 -0.652588 -1.26455 14 1.55513 695.467
0.792436 -0.652452 -1.26537 12.25 1.56 697.625
-0.986347 -0.64057 -1.26373 11.3333 1.55433 1
-0.975137 -0.64058 -1.26428 14 1.54833 4.5
-0.966 -0.64112 -1.26332 15 1.54267 7.16667
-0.9504 -0.6434 -1.2623 12 1.534 12
-0.944235 -0.64177 -1.26206 10.1818 1.52982 13.7273
-0.935344 -0.641292 -1.26316 13.1111 1.52556 16.6667
-0.924348 -0.641205 -1.26248 12.3333 1.519 20
-0.91773 -0.6416 -1.26173 10.6667 1.515 22
-0.90486 -0.64088 -1.26337 12 1.509 26.3333
-0.897096 -0.642597 -1.26134 13.75 1.504 28.625
-0.884693 -0.641148 -1.26293 10.6 1.4981 32.8
-0.87913 -0.64262 -1.26067 12.6667 1.494 34.3333
-0.86298 -0.641035 -1.26065 12 1.485 39.5
-0.854535 -0.641348 -1.26276 12.4 1.4824 42.7
-0.844604 -0.641335 -1.262 11.25 1.47675 45.875
-0.837985 -0.640815 -1.2617 13 1.473 48
-0.744466 -0.641096 -1.2638 12.6 1.43 80.8
-0.73446 -0.642006 -1.26404 12.875 1.42606 84.5
-0.725985 -0.642279 -1.26448 13.1765 1.42276 87.6471
-0.714001 -0.641851 -1.26362 14 1.41665 91.8235
-0.705898 -0.641928 -1.26351 14.6154 1.41308 94.7692
-0.694864 -0.641324 -1.26238 14 1.4072 98.6
-0.685812 -0.641208 -1.26398 13.6364 1.40464 102.182
-0.674998 -0.641667 -1.26397 14.7692 1.40031 106.231
-0.664288 -0.641654 -1.26407 14.8333 1.396 110.25
-0.654835 -0.642009 -1.26379 14.8421 1.39211 113.789
-0.644984 -0.642035 -1.26299 14.5333 1.38753 117.4
-0.635015 -0.641501 -1.26482 14.3333 1.38492 121.417
-0.625044 -0.642452 -1.2619 14.9412 1.37906 124.882
-0.615697 -0.642566 -1.26244 14.875 1.376 128.562
-0.605661 -0.642179 -1.26363 15 1.37308 132.583
-0.595313 -0.642288 -1.26304 14.8235 1.36882 136.529
-0.585133 -0.642417 -1.26398 14.1176 1.366 140.647
-0.575039 -0.642329 -1.26407 16.4615 1.36246 144.615
-0.565961 -0.642452 -1.26468 16.381 1.35986 148.286
-0.554681 -0.643643 -1.26401 14.8 1.35595 152.75
-0.544923 -0.642308 -1.26392 16.1818 1.35205 156.545
-0.534613 -0.642046 -1.26354 15.2308 1.34823 160.615
-0.525684 -0.64182 -1.265 16.125 1.3465 164.375
-0.514954 -0.642609 -1.26404 16.2353 1.34265 168.647
-0.504634 -0.643108 -1.26413 16.2353 1.33976 172.882
-0.495598 -0.642984 -1.26533 15.2 1.338 176.7
-0.485397 -0.641882 -1.26384 15.2174 1.33326 180.652
-0.475173 -0.641854 -1.26343 15.8182 1.32995 184.818
-0.464729 -0.642143 -1.2643 15.4 1.3279 189.25
-0.455169 -0.643306 -1.26468 14.9286 1.32611 193.321
-0.444453 -0.641954 -1.26434 16.2105 1.32237 197.684
-0.435625 -0.642121 -1.26392 16 1.3198 201.35
-0.424595 -0.642347 -1.26481 16.9167 1.31788 206.083
-0.414972 -0.642739 -1.26472 16.3077 1.31562 210.154
-0.405126 -0.643015 -1.26471 15 1.31337 214.333
-0.395168 -0.643644 -1.26434 15.92 1.31104 218.56
-0.384314 -0.642838 -1.2648 15.4615 1.30865 223.192
-0.375022 -0.642509 -1.26453 16.9565 1.30626 227.13
-0.364661 -0.642984 -1.26357 17.1304 1.30348 231.522
-0.355616 -0.642447 -1.26575 16.9565 1.3033 235.565
-0.344911 -0.643969 -1.26487 18 1.30114 240.179
-0.334566 -0.642785 -1.26457 16.4545 1.29841 244.591
-0.325393 -0.643146 -1.26485 16.7826 1.29717 248.609
-0.315446 -0.642786 -1.26489 17.9286 1.29532 252.929
-0.305599 -0.643656 -1.26514 17.0909 1.29432 257.273
-0.295257 -0.642901 -1.2654 17.8947 1.29258 261.789
-0.28513 -0.64328 -1.26499 19.5652 1.29087 266.217
-0.275167 -0.643727 -1.26536 17.7037 1.29 270.63
-0.264612 -0.644286 -1.2651 17.76 1.2886 275.28
-0.254699 -0.643804 -1.26483 17.1111 1.28689 279.63
-0.245224 -0.643098 -1.26461 18.8276 1.28524 283.793
-0.23495 -0.643035 -1.2657 18.1739 1.28504 288.391
-0.225095 -0.643816 -1.26456 17.7333 1.28337 292.733
-0.215218 -0.644184 -1.26488 17.8571 1.28286 297.143
-0.20521 -0.644131 -1.26496 18.6667 1.28203 301.6
-0.19535 -0.644028 -1.26526 19.0286 1.28146 306
-0.185412 -0.644383 -1.26491 18.6429 1.28057 310.429
-0.175423 -0.644519 -1.26561 18.4242 1.28061 314.909
-0.165214 -0.644138 -1.26627 17.84 1.28044 319.48
-0.154955 -0.644914 -1.2665 17.4615 1.2805 324.077
-0.145227 -0.644666 -1.26532 19.4074 1.27893 328.407
-0.134973 -0.643596 -1.26598 19.36 1.27868 333
-0.124676 -0.64438 -1.26512 16.7826 1.278 337.609
-0.11434 -0.645472 -1.26459 18.8485 1.27785 342.242
-0.104728 -0.644564 -1.26611 17.7778 1.2787 346.556
-0.0948087 -0.644623 -1.26476 20 1.27752 351
-0.0846561 -0.644465 -1.26527 21.7241 1.27793 355.552
-0.0748643 -0.645417 -1.26476 21.4857 1.27806 359.943
-0.0646658 -0.644448 -1.26432 20 1.27743 364.522
-0.0545735 -0.644947 -1.26427 19.0435 1.27791 369.043
-0.0444598 -0.645063 -1.26502 18.72 1.279 373.56
-0.0349366 -0.645012 -1.26554 19.3125 1.27987 377.812
-0.0245564 -0.645826 -1.26564 19.68 1.28088 382.44
-0.0150217 -0.644749 -1.26475 20.4667 1.28017 386.733
-0.00476334 -0.646057 -1.26569 19.3333 1.2823 391.267
0.00458543 -0.646307 -1.26509 21.5556 1.28259 395.444
0.0149629 -0.645383 -1.26572 20.4706 1.28359 400.059
0.0246698 -0.646252 -1.26452 21.44 1.2838 404.4
0.0348109 -0.646318 -1.2659 17 1.28606 408.844
0.0453892 -0.646345 -1.26572 17.7857 1.28704 413.536
0.0546883 -0.646503 -1.26466 18 1.28723 417.692
0.0645327 -0.646001 -1.26639 18.8667 1.28973 421.967
0.0745614 -0.646277 -1.264 20.5455 1.28905 426.5
0.0840163 -0.646628 -1.26449 20.0833 1.29092 430.625
0.0951194 -0.646677 -1.2664 18.1538 1.29423 435.385
0.104898 -0.646577 -1.26499 20.5 1.29444 439.75
0.115233 -0.647112 -1.26556 20.5 1.29683 444.208
0.124974 -0.646771 -1.26671 19.3846 1.29931 448.385
0.135329 -0.647305 -1.2641 20.08 1.29908 453.04
0.145031 -0.646283 -1.26505 21.5 1.30121 457.214
0.154694 -0.64649 -1.2655 19.0435 1.30352 461.348
0.164748 -0.647343 -1.26535 17.1538 1.30577 465.654
0.175171 -0.646829 -1.26529 19.1538 1.30762 470.154
0.185728 -0.647007 -1.26624 19.5 1.31075 474.583
0.194683 -0.646656 -1.26589 20.6667 1.31226 478.444
0.204803 -0.647292 -1.26552 22.6667 1.3145 482.75
0.215067 -0.647569 -1.26562 21.8519 1.31711 487.074
0.226307 -0.647064 -1.26593 19.8095 1.31986 491.81
0.234783 -0.647795 -1.26505 18.7368 1.32153 495.421
0.245002 -0.647807 -1.26593 19 1.32489 499.611
0.254842 -0.647725 -1.26612 19.3 1.3276 503.7
0.263956 -0.647437 -1.2657 19.6364 1.32955 507.545
0.27599 -0.647957 -1.26594 20.5882 1.33329 512.471
0.284629 -0.648264 -1.26727 20.4 1.337 515.867
0.295757 -0.647707 -1.26617 19.3684 1.33905 520.579
0.305374 -0.647827 -1.26615 20.7778 1.34194 524.5
0.31599 -0.647704 -1.26554 19.0526 1.34458 528.895
0.325346 -0.648293 -1.26568 20.375 1.34787 532.625
0.33465 -0.648438 -1.26574 19.4286 1.35093 536.357
0.345365 -0.648112 -1.26579 19.3333 1.35429 540.667
0.355123 -0.648239 -1.26664 20.1111 1.35828 544.444
0.365588 -0.648222 -1.26772 19.3846 1.36269 548.462
0.375729 -0.648134 -1.26748 21.3333 1.36592 552.5
0.387033 -0.648913 -1.26723 20.3333 1.37 556.917
0.394765 -0.64741 -1.26672 19.7895 1.37168 560.105
0.404667 -0.647763 -1.26622 20.625 1.375 564
0.414128 -0.648646 -1.26726 21.6364 1.37973 567.455
0.424932 -0.648375 -1.2682 19.8333 1.38442 571.5
0.434594 -0.648525 -1.26596 19.8 1.3863 575.5
0.446024 -0.64757 -1.26739 21.1429 1.3915 579.714
0.454606 -0.648146 -1.26734 19.3846 1.39508 582.923
0.46405 -0.648862 -1.26566 18.4444 1.39778 586.667
0.474243 -0.649018 -1.26682 15.4 1.4029 590.3
0.484646 -0.648935 -1.26665 18.6 1.407 594.2
0.49481 -0.648575 -1.26656 18.6667 1.411 598
0.504129 -0.648725 -1.26675 18.1538 1.41515 601.385
0.514783 -0.647774 -1.26625 20.7143 1.41893 605.429
0.524575 -0.647556 -1.26596 18.8 1.42285 609.05
0.535115 -0.647689 -1.26741 18.4615 1.42869 612.615
0.544949 -0.647867 -1.26551 19 1.43164 616.429
0.555636 -0.648439 -1.26626 17.1429 1.43729 620.071
0.565627 -0.649161 -1.26623 17.3333 1.44211 623.556
0.575109 -0.647594 -1.26766 16.2857 1.447 626.786
0.583984 -0.648429 -1.26603 15.4545 1.45018 630.091
0.595326 -0.64895 -1.26744 15.5 1.45687 633.75
0.604677 -0.648836 -1.26617 17 1.4603 637.2
0.614213 -0.647696 -1.26741 16.7143 1.46543 640.357
0.62508 -0.649463 -1.26688 15.5 1.471 644
0.63202 -0.64735 -1.27 16 1.476 646
0.647613 -0.64933 -1.26843 14.6667 1.48333 651.333
0.654309 -0.648741 -1.26537 14.5714 1.48414 654.143
0.661175 -0.648745 -1.2678 15 1.4895 656
0.674965 -0.648178 -1.26835 15.5 1.49675 660.5
0.686157 -0.648794 -1.2673 14.5714 1.502 664.286
0.694816 -0.648511 -1.26659 14.5 1.50587 667.25
0.704863 -0.649307 -1.26893 14 1.51325 670
0.715016 -0.648855 -1.26845 13 1.51813 673.375
0.724622 -0.649214 -1.26842 14.4 1.5234 676.4
0.73494 -0.648898 -1.2678 13.6 1.5284 679.8
0.74571 -0.649155 -1.26863 13.5 1.535 683
0.755185 -0.64903 -1.2684 12 1.54 686
0.767248 -0.64927 -1.26676 13.2 1.5456 690
0.77465 -0.648753 -1.26577 13.3333 1.54883 692.5
0.785975 -0.64955 -1.2678 14 1.557 695.5
0.793015 -0.649825 -1.2683 15 1.5615 697.5
-0.983286 -0.637258 -1.26582 13 1.55287 2
-0.975376 -0.637601 -1.26663 13 1.54908 4.58333
-0.964702 -0.636795 -1.26641 13.8667 1.5426 7.73333
-0.95791 -0.636538 -1.2648 10.5 1.5375 9.5
-0.946035 -0.637535 -1.26621 8 1.53231 13.5385
-0.935344 -0.637777 -1.26674 12 1.5269 17
-0.925192 -0.637345 -1.26657 11.125 1.52106 20.125
-0.915938 -0.635943 -1.26528 8.46154 1.51454 22.6923
-0.905533 -0.637547 -1.26679 7.875 1.51069 26.4375
-0.894744 -0.637859 -1.26595 11.5714 1.50443 29.7857
-0.885901 -0.637249 -1.26562 11.3333 1.49927 32.5333
-0.8738 -0.635201 -1.26634 14 1.49271 36.4286
-0.864332 -0.636794 -1.26581 12 1.488 39.5882
-0.855994 -0.637676 -1.26581 12.7143 1.48407 42.4286
-0.844762 -0.638096 -1.26709 11.7143 1.4795 46.4286
-0.837824 -0.636254 -1.26616 12.8571 1.47457 48.4286
-0.824865 -0.63465 -1.26815 16 1.469 53
-0.80931 -0.63081 -1.2683 10 1.46 58
-0.79703 -0.63028 -1.2672 14 1.453 62
-0.76141 -0.631673 -1.26377 16.6667 1.434 74
-0.754395 -0.636979 -1.26802 13.3846 1.43623 77.6154
-0.745644 -0.637833 -1.26803 13.6 1.4326 80.8
-0.735272 -0.637725 -1.26778 12.3077 1.42769 84.4615
-0.72693 -0.638827 -1.2685 14 1.425 87.6667
-0.715221 -0.637594 -1.26727 13.5385 1.41838 91.6154
-0.703479 -0.638714 -1.26829 13.4286 1.41457 96.1429
-0.693655 -0.638447 -1.26743 12.8 1.4096 99.6
-0.685297 -0.638197 -1.26726 12.7273 1.40582 102.636
-0.675251 -0.639197 -1.26764 14.75 1.40237 106.5
-0.667247 -0.639084 -1.26634 16 1.398 109.286
-0.654844 -0.636404 -1.26942 13.6 1.3944 114.2
-0.645245 -0.637404 -1.26747 14.6667 1.38939 117.611
-0.635211 -0.637785 -1.26722 14.8333 1.38542 121.417
-0.625143 -0.638486 -1.26766 17 1.38219 125.375
-0.615245 -0.638385 -1.26643 16.7692 1.37738 129
-0.605786 -0.638386 -1.26584 16 1.37336 132.571
-0.596592 -0.639085 -1.26625 15.25 1.37063 136.25
-0.584147 -0.639355 -1.26717 14.5 1.367 141.25
-0.574938 -0.63839 -1.26693 16 1.36315 144.769
-0.565562 -0.637558 -1.26758 15.1667 1.36008 148.5
-0.555304 -0.638662 -1.26607 16 1.35578 152.444
-0.54538 -0.639194 -1.26831 15.4286 1.35457 156.714
-0.534135 -0.63887 -1.26671 15.2 1.3494 161
-0.527476 -0.637359 -1.26847 18.6 1.3481 163.8
-0.515281 -0.638626 -1.26783 15.8182 1.34427 168.727
-0.504794 -0.638739 -1.26593 15.5385 1.33946 172.769
-0.496069 -0.638432 -1.26707 16.6667 1.33767 176.444
-0.48193 -0.639105 -1.26905 16 1.3355 182.5
-0.473814 -0.63822 -1.2673 15.2 1.3313 185.6
-0.466612 -0.638558 -1.26797 16.6667 1.33 188.667
-0.45515 -0.639495 -1.26825 17 1.3275 193.5
-0.446345 -0.63852 -1.2671 15.5 1.32375 197
-0.43474 -0.638792 -1.26843 16.4444 1.322 202
-0.427478 -0.639238 -1.26772 18 1.31975 205
-0.411933 -0.63867 -1.26927 17.3333 1.317 211.667
-0.40619 -0.639318 -1.26787 16 1.31475 214
-0.397363 -0.63934 -1.26793 15.5 1.31275 217.75
-0.387265 -0.639423 -1.26732 15.5 1.31 222
-0.363558 -0.639285 -1.2686 16 1.306 232.25
-0.35311 -0.638365 -1.26917 16.5 1.304 236.75
-0.345031 -0.639048 -1.26718 17.3333 1.301 240.111
-0.335335 -0.63941 -1.26965 16 1.3015 244.5
-0.322433 -0.638535 -1.26872 17 1.298 250
-0.316427 -0.63875 -1.2694 18 1.29767 252.667
-0.307595 -0.639085 -1.269 20 1.296 256.5
-0.282575 -0.639465 -1.26975 17 1.293 267.5
-0.274857 -0.63949 -1.2657 18 1.28833 270.667
-0.25409 -0.639217 -1.26927 16.6667 1.28867 280
-0.24966 -0.63961 -1.27 18 1.289 282
-0.23359 -0.63861 -1.2681 16 1.285 289
-0.2269 -0.63764 -1.2693 18 1.285 292
-0.214993 -0.639443 -1.26973 18 1.285 297.333
-0.20895 -0.63924 -1.2693 18 1.284 300
-0.18654 -0.63958 -1.27 20 1.283 310
-0.175283 -0.63931 -1.26947 16.6667 1.28167 315
-0.16398 -0.63967 -1.267 16 1.279 320
-0.15287 -0.6378 -1.2697 16 1.28 325
-0.14237 -0.639073 -1.26687 19.3333 1.27767 329.667
-0.0847595 -0.6398 -1.2688 20 1.279 355.5
-0.078051 -0.639575 -1.27 22 1.28 358.5
-0.95484 -0.6296 -1.2659 12 1.534 10
-0.94927 -0.62673 -1.2634 12 1.528 11
-0.90951 -0.62901 -1.2647 0 1.508 24
-0.88215 -0.624945 -1.2648 17 1.492 32.5
-0.87543 -0.62981 -1.2696 30 1.494 36
-0.822823 -0.628335 -1.26582 12 1.46375 52.75
-0.79414 -0.62917 -1.2619 12 1.447 62
-0.78892 -0.62805 -1.2695 12 1.45 65
-0.778145 -0.623805 -1.2641 12 1.439 67.5
-0.76805 -0.62496 -1.2632 14 1.434 71
-0.93598 -0.614545 -1.26585 4 1.518 14.5
-0.90406 -0.61211 -1.2689 0 1.502 25
-0.8981 -0.61647 -1.2618 4 1.495 26
-0.88326 -0.61266 -1.27 20 1.492 32
-0.82754 -0.61655 -1.2651 22 1.461 50
-0.81645 -0.60078 -1.2682 28 1.452 53
-0.80541 -0.60277 -1.2627 14 1.443 56
-0.92496 -0.59837 -1.2631 12 1.504 16
-0.90084 -0.59849 -1.2698 10 1.496 25
-0.82304 -0.59668 -1.2659 12 1.452 50
-0.81199 -0.59373 -1.2629 30 1.443 53
-0.90257 -0.58002 -1.2601 6 1.483 21
-0.81099 -0.58913 -1.2631 28 1.441 53
-0.80901 -0.58383 -1.2617 26 1.437 53
-0.79104 -0.58074 -1.2617 10 1.427 59
-0.78983 -0.5871 -1.262 8 1.429 60
-0.8993 -0.57301 -1.2683 10 1.485 23
-0.81287 -0.57866 -1.2604 12 1.436 51
-0.79419 -0.57082 -1.2668 14 1.429 58
-0.90093 -0.56955 -1.2673 10 1.484 22
-0.87766 -0.5696 -1.2641 2 1.469 29
-0.80356 -0.56219 -1.2611 24 1.426 53
-0.79756 -0.5691 -1.263 26 1.427 56
-0.801007 -0.554763 -1.2668 16 1.42667 54.3333
-0.79392 -0.55972 -1.2656 24 1.424 57
-0.80639 -0.54131 -1.2647 10 1.423 51
-0.8815 -0.53912 -1.2632 14 1.46 25
-0.87827 -0.52881 -1.2672 12 1.458 26
-0.85957 -0.51524 -1.2663 8 1.443 31
-0.78528 -0.51648 -1.2619 28 1.402 56
-0.83843 -0.50129 -1.2606 4 1.423 36
-0.78889 -0.50307 -1.2688 24 1.405 55
-0.85058 -0.49274 -1.2648 12 1.43 32
-0.84108 -0.4986 -1.2612 24 1.424 35
-0.78052 -0.4812 -1.2614 26 1.388 55
-0.78038 -0.43077 -1.2638 2 1.375 52
-0.78375 -0.42533 -1.26425 14 1.3755 50.5
-0.78154 -0.413835 -1.2615 9 1.369 50
-0.77136 -0.39073 -1.2653 10 1.361 53
-0.764965 -0.392915 -1.2654 22 1.3585 55.5
-0.71094 -0.39136 -1.2673 30 1.334 76
-0.70807 -0.39132 -1.2695 30 1.3345 77.5
-0.69373 -0.39068 -1.2697 32 1.328 83
-0.76616 -0.385373 -1.26493 14.5 1.35675 54.5
-0.75565 -0.38211 -1.264 8 1.35 58
-0.712888 -0.383936 -1.26651 25.6667 1.33225 74.6667
-0.704573 -0.384546 -1.26687 30.1905 1.3289 77.9524
-0.695664 -0.384674 -1.26747 30.4 1.3254 81.5
-0.68585 -0.384135 -1.26824 20.7059 1.32153 85.4118
-0.67938 -0.382875 -1.26902 20 1.319 88
-0.762243 -0.37331 -1.26713 13.3333 1.35367 55.6667
-0.75213 -0.37025 -1.266 4 1.347 59
-0.74921 -0.37127 -1.2602 20 1.341 59
-0.71379 -0.374804 -1.26232 22.6 1.3268 73
-0.704798 -0.376296 -1.26301 30.4762 1.32362 76.6667
-0.695242 -0.375424 -1.26292 29.619 1.31895 80.2857
-0.685156 -0.37494 -1.26348 24.64 1.31476 84.28
-0.678899 -0.374255 -1.26618 20 1.31413 87.1875
-0.76696 -0.36191 -1.2609 6 1.348 52
-0.755848 -0.36535 -1.26555 14 1.34725 57.25
-0.749017 -0.36447 -1.26353 14 1.342 59.3333
-0.72143 -0.36951 -1.2634 6 1.33 70
-0.70154 -0.36985 -1.2601 32 1.318 77
-0.697363 -0.369517 -1.2605 28 1.31633 78.6667
-0.682552 -0.36667 -1.26218 28.4 1.3104 84.6
-0.678386 -0.365026 -1.26411 24 1.30979 86.5
-0.76566 -0.356925 -1.26485 3 1.3495 53
-0.747265 -0.355845 -1.261 6 1.337 59
-0.725893 -0.354283 -1.2645 12 1.32933 67.6667
-0.68034 -0.353593 -1.26697 21.3333 1.31033 85.6667
-0.677931 -0.355312 -1.26566 19.8182 1.30855 86.4545
-0.75991 -0.34219 -1.2634 4 1.342 54
-0.746297 -0.346273 -1.26187 15.3333 1.335 59
-0.72907 -0.343973 -1.26167 9.33333 1.326 65.3333
-0.68002 -0.34399 -1.2601 20 1.302 84
-0.678393 -0.344208 -1.26506 19.5 1.30558 85.5833
-0.769 -0.33634 -1.2667 12 1.348 51
-0.75134 -0.33189 -1.2652 4 1.337 57
-0.74476 -0.332757 -1.2668 11 1.33533 59.8333
-0.73285 -0.33322 -1.2601 14 1.324 63
-0.680418 -0.334182 -1.26625 19.3333 1.30517 84.5
-0.678906 -0.336265 -1.26452 20 1.3035 84.875
-0.76089 -0.32492 -1.2697 24 1.344 54
-0.752075 -0.32591 -1.2681 13 1.3385 57
-0.7432 -0.326005 -1.26462 20.25 1.33125 59.625
-0.73632 -0.32987 -1.2625 4 1.327 62
-0.68083 -0.32475 -1.2648 20.4 1.302 83.6
-0.678376 -0.324209 -1.26583 21.8667 1.30167 84.7333
-0.74192 -0.31993 -1.2607 4 1.326 59
-0.73892 -0.31847 -1.2604 2 1.324 60
-0.680135 -0.31507 -1.2653 21 1.3 83.5
-0.677534 -0.315244 -1.26513 23.4444 1.29872 84.5
-0.754945 -0.30462 -1.2664 13 1.334 54.5
-0.677072 -0.307258 -1.26267 23 1.29467 83.8333
-0.74994 -0.29855 -1.266 14 1.33 56
-0.680867 -0.297477 -1.26715 18 1.29825 82.75
-0.678506 -0.294151 -1.26441 21.25 1.29412 83
-0.68189 -0.28656 -1.26617 20 1.29567 81.6667
-0.68405 -0.27806 -1.2639 4 1.293 80
0.40942 -0.26074 -1.2693 30 1.26 587
0.41405 -0.261275 -1.2688 33 1.2615 589
0.406829 -0.253403 -1.26687 28.625 1.25544 586.625
0.415814 -0.254284 -1.26756 30.9474 1.25984 590.211
0.424702 -0.254051 -1.26754 31.8095 1.26343 593.905
0.434234 -0.25467 -1.26696 32.087 1.267 597.913
0.405309 -0.244677 -1.26441 27.8519 1.25107 586.741
0.415188 -0.24583 -1.26249 30.3636 1.25355 591.182
0.425277 -0.245427 -1.2628 32.1905 1.2579 595.333
0.434577 -0.245074 -1.2634 32.1538 1.26227 599.077
0.442339 -0.24552 -1.26621 30.5714 1.26814 601.714
-0.69839 -0.23967 -1.2699 8 1.298 74
0.403696 -0.234996 -1.2641 24.9 1.2485 586.45
0.43987 -0.23857 -1.2607 35 1.261 602
0.44554 -0.234872 -1.26518 27.6 1.2668 603.6
-0.77202 -0.22724 -1.2631 20 1.326 44
0.402797 -0.224426 -1.26459 22.5 1.24683 586.333
-0.70453 -0.21426 -1.2666 30 1.294 70
0.403034 -0.214916 -1.26466 21.6667 1.2455 586.722
0.403441 -0.204936 -1.26454 20.7143 1.24407 587.214
0.403002 -0.194964 -1.26544 21.4737 1.24326 587.158
0.402749 -0.184344 -1.26352 23.6923 1.24 587.692
0.403807 -0.174919 -1.265 25.3333 1.24056 588.111
0.46212 -0.17599 -1.2612 34 1.262 613
-0.72579 -0.16808 -1.27 18 1.301 61
0.404944 -0.16512 -1.26522 20.4 1.24 588.8
0.4063 -0.156875 -1.26285 30 1.2375 590
0.4736 -0.152757 -1.2675 17.3333 1.27 617
0.40685 -0.14633 -1.2601 22 1.234 591
0.41004 -0.13905 -1.2627 18 1.237 592
0.47863 -0.13288 -1.2649 6 1.268 620
-0.74064 -0.11671 -1.2696 36 1.303 54
0.42309 -0.088356 -1.2646 8 1.24 598
0.42786 -0.074353 -1.2655 12 1.242 600
-0.158965 -0.018611 -1.26725 0 1.127 318.5
0.51813 0.0055485 -1.2657 4 1.281 637
0.53034 0.040881 -1.2686 28 1.29 641
-0.747555 0.15939 -1.261 14 1.303 50.5
-0.73817 0.15994 -1.2605 14 1.298 54
-0.716065 0.15931 -1.26035 16 1.287 62.5
-0.706447 0.15955 -1.2606 15.3333 1.28267 66.3333
-0.68971 0.15998 -1.2608 14 1.275 73
-0.65728 0.15994 -1.2605 14 1.26 86
-0.643795 0.15873 -1.2606 14 1.254 91.5
-0.631575 0.1587 -1.2604 17 1.2485 96.5
-0.6208 0.15991 -1.2603 16 1.244 101
-0.61841 0.15991 -1.2603 16 1.243 102
-0.60411 0.1599 -1.2602 20 1.237 108
-0.59698 0.15869 -1.2603 18 1.234 111
-0.583165 0.159965 -1.2607 16 1.229 117
-0.571545 0.15875 -1.2609 19 1.2245 122
-0.565362 0.158998 -1.26272 16.8 1.2238 125
-0.55528 0.15933 -1.26055 17 1.218 129
-0.545017 0.15904 -1.26065 18.5 1.21425 133.5
-0.53478 0.15874 -1.2607 19 1.2105 138
-0.52347 0.159454 -1.26054 18.8 1.2064 143
-0.515488 0.159158 -1.26208 19.2 1.205 146.8
-0.5078 0.15874 -1.2607 18 1.201 150
-0.495703 0.158785 -1.26102 17.5 1.19725 155.5
-0.48331 0.159295 -1.26025 20 1.1925 161
-0.47692 0.15877 -1.2609 18 1.191 164
-0.46581 0.1587 -1.2604 20 1.187 169
-0.443165 0.159345 -1.2606 21 1.1805 179.5
-0.43977 0.15868 -1.2602 18 1.179 181
-0.42485 0.15747 -1.2606 24 1.175 188
-0.404168 0.158398 -1.26132 21 1.17017 197.833
-0.39651 0.159153 -1.26155 20.5 1.1685 201.5
-0.384975 0.159173 -1.2617 22 1.16575 207
-0.374998 0.158456 -1.26042 22.4 1.162 211.6
-0.364798 0.158159 -1.26197 22.3333 1.16108 216.667
-0.355644 0.158646 -1.26125 23.5 1.15837 221
-0.34418 0.15936 -1.2608 22 1.1555 226.5
-0.33065 0.15868 -1.2602 20 1.152 233
-0.324835 0.15889 -1.26185 21.5 1.1525 236
-0.31522 0.15885 -1.26157 19.3333 1.15033 240.667
-0.305317 0.158208 -1.26147 21 1.14833 245.5
-0.29711 0.158785 -1.26105 21 1.1465 249.5
-0.285522 0.158303 -1.26052 20 1.144 255.167
-0.275776 0.158736 -1.26066 18 1.1426 260
-0.262704 0.158688 -1.26224 19.6 1.1422 266.6
-0.258457 0.158033 -1.26173 22.6667 1.141 268.667
-0.244093 0.158717 -1.26055 19.5 1.138 275.75
-0.235085 0.158669 -1.2626 18.75 1.13887 280.375
-0.226385 0.15823 -1.26163 22.6667 1.13683 284.667
-0.215035 0.159195 -1.26428 21.3333 1.13833 290.5
-0.205425 0.158713 -1.26295 23 1.136 295.25
-0.197274 0.158151 -1.26177 19.7143 1.134 299.286
-0.186377 0.158628 -1.26312 20.6667 1.1345 304.833
-0.174891 0.158339 -1.26177 22 1.13229 310.571
-0.16533 0.158614 -1.26166 21.6 1.1316 315.4
-0.15422 0.158768 -1.26095 20.5 1.13025 321
-0.142398 0.15836 -1.26166 20 1.1304 327
-0.137495 0.158955 -1.26235 18 1.131 329.5
-0.12384 0.158403 -1.26373 20.5714 1.13186 336.429
-0.114973 0.158152 -1.26357 17.8333 1.1315 340.917
-0.105233 0.157925 -1.26275 17.0769 1.13054 345.846
-0.0954978 0.158368 -1.26218 14.8889 1.13 350.778
-0.0856462 0.158291 -1.26156 16 1.12944 355.778
-0.0757438 0.158575 -1.26144 9 1.1295 360.8
-0.0651403 0.158717 -1.26218 16.6667 1.1305 366.167
-0.0562842 0.158644 -1.26367 19.75 1.13225 370.625
-0.0458874 0.158265 -1.26294 22.8 1.1319 375.9
-0.0350964 0.158445 -1.2621 23.75 1.13162 381.375
-0.0251063 0.158002 -1.2612 25.2727 1.13127 386.455
-0.0137729 0.158381 -1.26211 25.7143 1.133 392.143
-0.00496733 0.158439 -1.26276 24.6667 1.13433 396.556
0.00521859 0.158367 -1.26197 24.2857 1.13443 401.714
0.0145946 0.158566 -1.26306 24 1.13637 406.375
0.0256468 0.158571 -1.2633 24.8 1.1378 411.9
0.0359202 0.158188 -1.2623 24 1.1379 417.1
0.0459825 0.158468 -1.26227 24 1.13912 422.125
0.0559506 0.158489 -1.26366 24.4 1.1418 427
0.06562 0.158361 -1.26266 25 1.14213 431.875
0.0752092 0.158524 -1.26272 23.75 1.14363 436.625
0.0846203 0.158453 -1.26267 24.2857 1.145 441.286
0.0950545 0.158043 -1.26247 22.3636 1.14645 446.455
0.104322 0.157718 -1.26267 20.6667 1.1482 451
0.114748 0.158505 -1.26382 19.6 1.1513 456
0.124788 0.158381 -1.26283 20.4 1.1522 461
0.136114 0.158539 -1.26578 19.5556 1.15733 466.222
0.14511 0.158092 -1.26497 19.0667 1.15833 470.667
0.15561 0.158733 -1.26397 20 1.15967 475.833
0.165018 0.157755 -1.26208 20.6667 1.15983 480.583
0.17444 0.158225 -1.26298 21.4545 1.16291 485
0.185275 0.158144 -1.26196 23.4 1.1645 490.3
0.194738 0.157949 -1.26263 24.3636 1.16745 494.727
0.203783 0.158947 -1.264 24.3333 1.17117 498.833
0.214913 0.158614 -1.26468 25.4 1.1747 504
0.224604 0.157971 -1.26308 24.4615 1.17569 508.769
0.235506 0.157997 -1.26284 25.8 1.1785 513.9
0.244218 0.158094 -1.26311 27 1.18125 517.917
0.255159 0.158101 -1.26369 28 1.185 522.9
0.264418 0.158528 -1.2654 28.1818 1.18945 526.909
0.274905 0.158142 -1.26349 26.1667 1.19083 532
0.284871 0.158494 -1.26373 27.5 1.19425 536.5
0.294678 0.158559 -1.26479 27.1111 1.19844 540.778
0.304283 0.158019 -1.26324 27.4545 1.20009 545.364
0.314964 0.158039 -1.26266 28.8333 1.20317 550.25
